204.8414764404297,215.5949249267578,227.52487182617188,235.2387542724609,223.33694458007807,209.75071716308597,211.75704956054688,210.71957397460935,207.1183013916016,177.10992431640625,121.16456604003906,99.29430389404295,93.8404541015625,75.04417419433594,79.63447570800781,113.70655059814452,108.47549438476562,80.07537841796875,64.03614044189453,51.63479995727539,47.77296447753906,42.67494583129883,47.0383186340332,55.96443939208984,53.71733093261719,52.34165573120117,54.37128448486328,48.74082946777344,50.99993896484375,64.7391586303711,66.4590835571289,70.66808319091797,78.63077545166016,68.76693725585938,54.216102600097656,54.71887969970703,57.86874008178711,49.87837219238281,41.39719772338867,40.47531127929688,39.10844039916992,37.66779327392578,41.95137405395508,42.45563888549805,38.99068832397461,41.14788818359375,43.24207305908203,44.57413101196289,46.15861129760742,43.20871353149414,36.78919219970703,38.95365524291992,42.15409469604492,45.1751708984375,46.5184440612793,45.368919372558594,44.921966552734375,43.89450454711914,45.91637420654297,50.94718170166016,48.7584114074707,44.28618621826172,44.53086853027344,48.691837310791016,50.64875411987305,46.73687362670898,40.1870002746582,40.68701171875,40.955078125,41.888973236083984,45.35230255126953,46.04579162597656,44.63442611694336,43.0128059387207,45.94287490844727,50.13251495361328,48.62883758544922,44.65278244018555,41.70182037353516,39.76536178588867,42.55326461791992,41.32248306274414,36.7188720703125,36.84930419921875,39.685943603515625,40.61396026611328,39.82499313354492,40.00066375732422,40.86056137084961,40.46733856201172,39.58354568481445,40.10308837890625,39.67481994628906,40.58906173706055,43.167266845703125,45.412872314453125,43.09153366088867,42.37211608886719,39.091495513916016,33.20851516723633,32.465660095214844,33.23806381225586,34.16914749145508,39.63749313354492,44.53066253662109,45.71138381958008,46.36421585083008,66.77251434326172,80.3564453125,80.98004150390625,78.7643051147461,62.38459777832031,49.92951583862305,44.89922332763672,55.43125534057617,104.82333374023438,128.17591857910156,75.90568542480469,52.84023284912109,51.835411071777344,54.03417205810547,56.02716064453125,58.55882263183594,62.699668884277344,73.4803695678711,91.20081329345705,118.3267822265625,143.64630126953125,162.83731079101562,169.050048828125,161.53521728515625,142.73211669921875,141.99339294433594,166.16033935546875,157.91970825195312,139.8517608642578,128.87680053710938,117.40535736083984,127.74407958984376,166.63021850585938,223.6527862548828,285.294189453125,315.4447937011719,341.96533203125,407.7353210449219,488.41162109375,521.5176391601562,550.4756469726562,581.2654418945312,588.1718139648438,586.308837890625,563.6289672851562,500.6340637207031,441.453857421875,451.7130432128906,526.5452270507812,564.2034301757812,539.8576049804688,520.4979248046875,551.7179565429688,597.9193725585938
233.6831970214844,230.6038818359375,237.96051025390625,227.31732177734372,198.11041259765625,168.29356384277344,141.36407470703125,125.7262191772461,121.55154418945312,102.82435607910156,76.11643981933594,64.32801055908203,60.33186340332031,58.82717514038086,65.33685302734375,70.5584945678711,59.07570266723633,50.61145782470703,60.34724044799805,61.75692367553711,48.91448593139648,42.5224723815918,40.36860656738281,44.13576126098633,43.676639556884766,41.08608627319336,44.19382095336914,46.68618392944336,53.045536041259766,67.91056060791016,70.44661712646484,61.119998931884766,62.237674713134766,61.216304779052734,50.91614532470703,52.60359573364258,53.84431457519531,49.06782150268555,42.940765380859375,37.67558670043945,36.98715972900391,35.78783416748047,37.13417434692383,38.69577026367188,42.190059661865234,50.72801971435547,48.60837173461914,43.087135314941406,40.31938171386719,38.32306289672852,39.56654739379883,43.15571975708008,45.683135986328125,47.75175476074219,47.44666290283203,47.97239685058594,48.74386978149414,48.88290786743164,49.78899383544922,53.5500602722168,51.03439331054688,49.25481414794922,48.89674758911133,49.120723724365234,48.41347503662109,43.89204788208008,41.58737564086914,46.16045379638672,44.82802200317383,42.05107498168945,45.64922332763672,48.71852111816406,48.37013244628906,46.479793548583984,45.109901428222656,45.38365173339844,43.99760055541992,40.31078720092773,38.56797790527344,41.76764678955078,44.56047058105469,42.2015380859375,37.73075866699219,37.17939376831055,39.57073593139648,41.49273681640625,40.86992645263672,40.406883239746094,40.52691650390625,41.66455078125,42.43410110473633,42.62337493896485,42.0882453918457,42.24125289916992,43.32268142700195,43.94364929199219,43.27381896972656,43.83053588867188,38.76771545410156,31.9454345703125,32.05968475341797,33.33881759643555,32.29999542236328,32.80253982543945,41.16514205932617,47.13410949707031,46.17496490478516,67.01023864746094,71.62096405029297,56.16123580932617,52.04975891113281,47.57060623168945,45.04679870605469,42.97990798950195,62.61079406738281,127.1451416015625,156.9948272705078,101.7150650024414,63.04643249511719,53.35979843139648,53.15543746948242,54.702178955078125,56.89669036865234,57.99908065795898,60.66345977783203,72.44705200195312,102.21847534179688,133.9954071044922,172.01832580566406,207.21255493164065,209.0084228515625,201.0001220703125,210.68255615234372,234.65855407714844,236.74026489257807,226.8441619873047,214.2675628662109,192.1046905517578,183.7704620361328,198.3484649658203,215.91021728515625,254.2286376953125,314.9314880371094,364.0584106445313,428.8926086425781,545.8543090820312,661.3811645507812,707.7666015625,670.2486572265625,619.4453735351562,629.4574584960938,691.3056640625,714.1420288085938,675.643310546875,604.42822265625,560.4447631835938,624.94970703125,715.3065185546875,731.932861328125,697.5914306640625,645.9462890625
205.1465606689453,201.43927001953125,196.1392517089844,195.31097412109372,190.1838836669922,189.75003051757807,183.01934814453125,147.9518585205078,107.3930206298828,84.12000274658203,72.75602722167969,82.13023376464844,99.80552673339844,99.58065795898438,102.24173736572266,96.3307647705078,88.61177062988281,66.7901382446289,70.73017120361328,86.26897430419922,84.14314270019531,70.60336303710938,70.61527252197266,79.60800170898438,71.85552215576172,46.98527145385742,50.799312591552734,71.73783874511719,68.20584869384766,52.94280624389648,50.93854141235352,49.51142120361328,56.15795135498047,65.92082214355469,56.998722076416016,46.94578170776367,43.91349029541016,50.19427490234375,48.1330451965332,39.04911422729492,36.17642211914063,34.406227111816406,34.92546463012695,36.53725814819336,39.75254440307617,41.80177307128906,39.42837524414063,37.07250213623047,36.86809158325195,38.320343017578125,40.79856491088867,41.8061752319336,43.028785705566406,45.5206298828125,47.53258514404297,55.75667953491211,57.96065521240234,52.34418869018555,53.00752639770508,58.1631965637207,56.21102142333984,56.53998565673828,56.67143630981445,53.84577941894531,47.7840690612793,41.95863342285156,43.58633804321289,49.63312149047852,50.01860427856445,45.85409927368164,47.099647521972656,52.25799560546875,53.41007232666016,53.29533386230469,48.03264999389648,43.34699630737305,42.85316467285156,42.05779266357422,42.33869552612305,44.90406036376953,45.38069534301758,41.64016342163086,39.22733688354492,39.92682647705078,38.771034240722656,38.923583984375,39.36255645751953,39.10882186889648,39.55922317504883,41.305912017822266,42.062618255615234,42.10464477539063,42.07062911987305,41.587379455566406,42.0784912109375,42.705665588378906,42.9462890625,41.80647277832031,37.58138275146485,33.31006622314453,32.31657791137695,33.33081817626953,33.419490814208984,33.273902893066406,34.16334915161133,33.95857238769531,35.84763717651367,59.573490142822266,77.83106231689453,61.02281951904297,52.82148742675781,51.03457260131836,47.966426849365234,44.48013687133789,55.845970153808594,77.370361328125,80.96063995361328,68.19862365722656,58.20691680908203,55.66402053833008,57.464752197265625,56.58160781860352,56.76529312133789,57.66255187988281,59.39033508300781,63.22878646850586,70.02267456054688,81.12654113769531,108.46123504638672,149.96511840820312,175.1566162109375,189.5468292236328,234.26976013183597,274.47088623046875,260.57958984375,242.57505798339844,220.8525238037109,185.64236450195312,183.729248046875,217.52053833007807,258.0674133300781,309.745849609375,379.59478759765625,445.8717041015625,488.0504760742188,560.446044921875,670.954345703125,749.5880737304688,746.1488037109375,702.0498046875,690.4019775390625,705.1343994140625,727.3994750976562,722.9576416015625,686.051513671875,652.4617309570312,666.54736328125,738.4358520507812,813.4290771484375,806.8194580078125,770.017333984375
194.5509033203125,212.100830078125,195.6670837402344,179.34799194335938,184.7801818847656,199.7093505859375,189.6696319580078,166.9346923828125,159.35923767089844,152.86451721191406,150.20079040527344,158.00677490234375,159.41754150390625,166.862060546875,183.1365203857422,150.548583984375,102.54521942138672,98.65391540527344,143.62060546875,168.66310119628906,168.3851318359375,151.7108612060547,147.67185974121094,150.2655487060547,107.07996368408205,54.223243713378906,40.29525375366211,50.31365585327149,53.29235076904297,46.58174133300781,46.85038757324219,43.89096450805664,46.52217102050781,55.975860595703125,54.238059997558594,46.34716033935547,40.07891845703125,45.440765380859375,46.42906188964844,39.132545471191406,34.3408317565918,33.2772102355957,34.87510681152344,35.55308151245117,35.30388641357422,34.97739028930664,35.76048278808594,37.37791061401367,38.38713836669922,41.604679107666016,44.704246520996094,45.05437088012695,44.61271667480469,46.24272918701172,50.103118896484375,58.33373641967773,63.273563385009766,56.29901885986328,54.75420379638672,58.756534576416016,60.441444396972656,60.47057723999024,57.1502571105957,52.12943649291992,46.94128036499024,42.3397216796875,42.76755142211914,46.939579010009766,48.98520278930664,47.369136810302734,47.88827133178711,53.84393310546875,57.28225326538086,56.77849960327149,49.68170166015625,46.70814895629883,48.61405944824219,45.883426666259766,46.99614715576172,50.24037170410156,47.96505737304688,42.15824890136719,40.84833908081055,41.612701416015625,39.70436096191406,39.0466194152832,38.97297668457031,38.62843704223633,39.468692779541016,40.52490615844727,40.246917724609375,40.74395751953125,41.36935043334961,41.0439682006836,41.47287368774414,42.25183868408203,43.24949645996094,43.874473571777344,42.545928955078125,39.118778228759766,35.43815994262695,34.63273620605469,35.25168991088867,34.48274612426758,33.798526763916016,34.286834716796875,34.50149154663086,57.57135772705078,111.04010772705078,117.75559997558594,96.09950256347656,74.26463317871094,53.90370559692383,48.17757797241211,48.71908187866211,48.05313491821289,49.86222839355469,51.82530975341797,52.20270919799805,54.08028411865234,57.617000579833984,59.24065017700195,59.01228332519531,58.854488372802734,59.965457916259766,61.452857971191406,63.637481689453125,71.01776885986328,99.02378845214844,152.1461639404297,205.8844451904297,227.7533416748047,240.1175537109375,243.80160522460935,194.9786529541016,149.90924072265625,133.176513671875,117.0859375,118.15057373046876,140.93719482421875,178.0838623046875,240.8237152099609,315.8511047363281,385.0907287597656,417.95111083984375,446.1359558105469,498.2691955566406,575.7910766601562,642.0997314453125,703.5235595703125,779.60009765625,801.5109252929688,768.88232421875,721.311279296875,702.382568359375,692.7371826171875,692.46044921875,717.5372924804688,786.6900634765625,858.4002685546875,897.155517578125
172.69139099121094,178.24049377441406,173.6282196044922,174.75450134277344,175.26968383789062,178.9852752685547,181.82164001464844,172.052978515625,177.42774963378906,190.0177154541016,210.8518524169922,219.16246032714844,210.41323852539065,213.9227600097656,189.93426513671875,137.17543029785156,118.2837142944336,137.0402374267578,150.9187469482422,142.6184539794922,151.86366271972656,203.71807861328125,208.0552520751953,174.54962158203125,119.789306640625,62.91451644897461,40.93656921386719,35.44562149047852,34.68051528930664,36.91425704956055,40.1796875,38.83842086791992,37.744140625,39.49851608276367,39.7894401550293,37.89260482788086,35.469486236572266,37.2252311706543,39.32298278808594,37.341495513916016,33.535579681396484,32.93792724609375,35.57626724243164,35.7898063659668,34.51403045654297,34.48763656616211,36.875396728515625,40.775909423828125,42.74292755126953,42.17597579956055,41.597450256347656,43.251739501953125,44.80723190307617,48.76958084106445,53.45667266845703,56.98429489135742,60.25478744506836,57.8024787902832,55.90483856201172,56.29594421386719,57.502418518066406,58.466190338134766,55.64231491088867,47.75315475463867,44.52231597900391,44.64298248291016,47.26020050048828,49.960784912109375,49.49874114990234,51.05241775512695,51.8462142944336,53.287994384765625,55.6524772644043,55.35943603515625,51.08751678466797,50.54608917236328,54.11935806274414,51.7275505065918,48.454437255859375,48.774688720703125,47.24863815307617,43.61629486083984,43.84654998779297,43.6123161315918,40.64858627319336,40.22623062133789,40.55370330810547,40.43567657470703,40.5653190612793,41.84809875488281,41.96867752075195,41.41416931152344,41.867462158203125,41.91632461547852,41.24911880493164,41.44595336914063,42.3682746887207,43.0286750793457,43.77154922485352,42.94255828857422,38.77098083496094,35.21006393432617,35.04672622680664,34.1689453125,33.73429107666016,34.27653503417969,34.626651763916016,45.631324768066406,113.6124496459961,200.3112030029297,201.1378173828125,144.1449432373047,86.60037231445312,63.55863952636719,53.13396835327149,49.07091522216797,49.93302536010742,50.3280143737793,51.01878356933594,52.29405975341797,55.87464141845703,59.80775833129883,60.74061584472656,62.392486572265625,64.64283752441406,64.5943603515625,63.8134994506836,66.72090148925781,79.37342071533203,111.30616760253906,159.5050048828125,172.63995361328125,155.1064453125,155.36550903320312,150.99884033203125,133.18911743164062,116.69442749023438,113.2595672607422,114.67300415039062,117.06021118164062,128.2998046875,151.95538330078125,184.54173278808597,211.15792846679688,259.0477600097656,328.41162109375,344.8090209960937,365.6918640136719,402.5579528808594,493.3251037597656,630.0866088867188,714.1010131835938,754.9200439453125,775.903564453125,779.169677734375,738.3429565429688,715.4920043945312,717.9178466796875,745.5841674804688,803.96826171875,855.6439819335938
162.96005249023438,152.92689514160156,153.93768310546875,155.9592742919922,167.9133758544922,179.82855224609375,183.0952911376953,174.05799865722656,174.20114135742188,189.85362243652344,211.13304138183597,210.3653564453125,182.93212890625,168.79840087890625,167.41041564941406,165.74867248535156,166.30841064453125,140.37106323242188,125.99079895019533,133.63101196289062,160.98373413085938,185.00929260253903,157.22702026367188,117.99065399169922,86.56124114990234,62.75788497924805,46.869815826416016,37.72123336791992,32.81787872314453,32.122310638427734,33.813697814941406,34.10947799682617,35.68390655517578,36.98738861083984,33.78759765625,30.86575126647949,30.345060348510746,32.597320556640625,36.25372695922852,35.09488677978516,32.76738357543945,33.52418899536133,35.546199798583984,35.17079544067383,33.90890884399414,35.35025405883789,37.62785720825195,40.223052978515625,43.057899475097656,45.75861740112305,45.68978118896485,46.67790603637695,48.330833435058594,49.7075309753418,54.44014358520508,56.3292121887207,55.30445098876953,55.89299392700195,56.27314758300781,53.8363037109375,51.70827865600586,51.56702423095703,49.96759414672852,46.18927764892578,46.72616195678711,50.74556350708008,51.35478591918945,55.51911163330078,57.3851318359375,55.1641960144043,52.49579620361328,53.61552429199219,57.53456878662109,57.72940826416016,55.75217056274414,54.52384185791016,54.48860168457031,52.00501251220703,48.912296295166016,47.51042938232422,45.38122177124024,44.507694244384766,46.72676086425781,44.7894172668457,41.960670471191406,41.51624298095703,41.527156829833984,41.87145614624024,42.34575271606445,43.12727737426758,43.374629974365234,43.11591720581055,43.61174774169922,43.42451477050781,42.8154296875,42.968204498291016,43.19252014160156,43.54546737670898,44.47692108154297,45.168418884277344,42.30094528198242,36.42712020874024,34.7965202331543,34.27635192871094,33.79399871826172,35.00126647949219,35.856407165527344,39.209564208984375,77.92427062988281,173.3759002685547,225.51953125,218.76214599609372,180.90771484375,112.56610870361328,63.48126602172852,52.39624786376953,49.293270111083984,50.354122161865234,51.99761581420898,52.42961120605469,53.44687271118164,54.65212631225586,55.85408020019531,60.181419372558594,67.42568969726562,70.2593994140625,69.0966567993164,67.09589385986328,73.1722640991211,85.43408203125,98.24990844726562,99.10884857177734,94.81504821777344,101.7453842163086,107.22830963134766,103.13133239746094,103.1928939819336,123.10208129882812,142.65367126464844,159.130126953125,167.58685302734375,161.1705322265625,170.55599975585938,203.0410614013672,237.8066864013672,268.43560791015625,249.22250366210935,233.75222778320312,258.90301513671875,322.2676696777344,390.3041076660156,462.98291015625,558.4495239257812,661.196044921875,740.599365234375,757.1022338867188,752.5670776367188,761.5247192382812,785.1357421875,811.285888671875,819.5950317382812
185.5771484375,172.2297821044922,165.30630493164062,156.58364868164062,151.29627990722656,158.7431640625,167.0158233642578,172.3060302734375,198.4055633544922,213.83905029296875,205.04254150390625,184.8984375,157.0592041015625,144.65853881835938,149.6005859375,151.20367431640625,132.6875762939453,107.64476776123048,114.36067962646484,126.28336334228516,141.21957397460938,135.77447509765625,115.57605743408205,102.75993347167967,88.90206146240234,64.9821548461914,47.89521789550781,43.116580963134766,34.390464782714844,31.64409065246582,34.25016021728516,34.39246368408203,33.24134063720703,32.63498306274414,29.86015892028809,28.15937042236328,28.86608123779297,31.345733642578125,34.983280181884766,34.09221267700195,32.81793594360352,33.30500030517578,34.13361740112305,35.291316986083984,34.90716552734375,35.40025329589844,36.6539421081543,39.74928283691406,41.90938949584961,43.578067779541016,47.982723236083984,54.480865478515625,55.95922088623047,56.33509826660156,65.11392974853516,68.0041275024414,63.81548309326172,66.01634216308594,69.22171783447266,60.33238220214844,51.64830780029297,49.45286560058594,49.87712860107422,51.42388153076172,49.98682022094727,56.74174880981445,58.29772186279297,54.16896057128906,58.80520248413086,58.45563507080078,56.145782470703125,55.34958267211914,59.32282638549805,60.44102096557617,57.32988357543945,54.69160842895508,53.01376724243164,53.684112548828125,51.088504791259766,47.38993835449219,44.6266975402832,42.99398040771485,43.2339973449707,42.82305908203125,42.77370071411133,42.34087753295898,41.53415298461914,42.63539505004883,44.28763961791992,45.02861022949219,45.82997894287109,45.68358612060547,46.01936340332031,45.93290328979492,45.61600112915039,45.1377067565918,44.68175506591797,44.77106094360352,45.23486709594727,46.22552108764648,44.8480224609375,38.342769622802734,35.32565689086914,35.750606536865234,35.52008819580078,35.83226776123047,36.32709503173828,37.3698616027832,45.01329803466797,80.52230072021484,128.84494018554688,175.1630401611328,176.42385864257812,120.30248260498048,91.3094253540039,72.26886749267578,56.50777816772461,57.39710235595703,57.47606658935547,54.88320541381836,55.32514190673828,55.85679244995117,56.371192932128906,58.1141242980957,62.686744689941406,67.86869049072266,68.39575958251953,66.62689208984375,74.73297882080078,79.0912094116211,72.15435791015625,71.43465423583984,72.07555389404297,73.6226577758789,75.17457580566406,77.42216491699219,78.93342590332031,81.93470001220703,92.8600845336914,110.68438720703124,121.76654052734376,129.64833068847656,162.6942901611328,205.34364318847656,232.59329223632807,246.25418090820312,219.97952270507807,188.48565673828125,190.77880859375,215.61572265625,252.853515625,309.2325744628906,394.96881103515625,501.20452880859375,593.3924560546875,671.377197265625,733.1124877929688,781.234619140625,796.513671875,797.2584228515625,810.5502319335938
184.8869781494141,164.8341522216797,157.36398315429688,152.26771545410156,152.01715087890625,147.70248413085938,148.09864807128906,153.45704650878906,172.04443359375,180.41897583007807,165.0537109375,149.64002990722656,123.02237701416016,96.24069213867188,78.84778594970703,63.04822540283203,60.84119415283203,62.27894592285156,64.00111389160156,77.96725463867188,95.67522430419922,102.34488677978516,121.07164001464844,120.89836883544922,103.72957611083984,73.79718780517578,46.10990524291992,37.87212371826172,32.24558639526367,31.496862411499023,35.40312194824219,36.89634323120117,33.41974258422852,30.02301979064941,29.097557067871094,27.693038940429688,29.004011154174805,32.245609283447266,32.47077941894531,31.45477104187012,31.96087455749512,31.862348556518555,31.9796199798584,33.84992980957031,34.58223342895508,35.960880279541016,37.92965316772461,41.176395416259766,43.49232482910156,47.151885986328125,54.82868576049805,60.86429214477539,61.47068405151367,59.42609786987305,63.70285415649414,74.8158187866211,72.21269989013672,65.97201538085938,71.30615234375,63.41634368896485,55.14581680297852,53.34681701660156,53.80499649047852,54.88972091674805,52.04800415039063,55.94940948486328,59.51273727416992,53.85762405395508,56.48989868164063,60.02438354492188,59.9575080871582,59.74882125854492,60.06216049194336,57.53488159179688,55.59491729736328,55.22291946411133,52.7721061706543,51.38633728027344,47.18770599365234,44.04171371459961,44.059513092041016,43.77245330810547,44.72478485107422,45.684906005859375,44.30766677856445,43.4987678527832,42.857818603515625,43.351593017578125,45.44629287719727,47.98537826538086,48.82805252075195,47.47777938842773,47.77956008911133,49.402713775634766,48.7364616394043,47.8931770324707,49.2713623046875,47.83750915527344,45.39316177368164,45.310306549072266,45.47785949707031,41.61817169189453,37.97309112548828,37.63737869262695,37.375030517578125,36.8091926574707,37.28759765625,36.78659057617188,37.67086791992188,40.634185791015625,50.94047164916992,72.41244506835938,80.78473663330078,79.36451721191406,95.411865234375,99.18616485595705,91.15991973876952,117.61699676513672,135.6300506591797,111.22562408447266,90.77555084228516,73.90682983398438,64.0544204711914,63.40982437133789,77.68401336669922,96.49639129638672,83.05526733398438,67.64974975585938,67.16840362548828,76.26559448242188,74.76004028320312,69.70992279052734,70.52195739746094,72.52682495117188,75.11738586425781,77.59700775146484,79.15956115722656,80.96002197265625,84.14007568359375,87.25138854980469,89.26383972167969,93.07312774658205,103.0062026977539,114.81927490234376,127.3767547607422,145.2875518798828,154.33474731445312,159.4051513671875,173.5356903076172,189.5140838623047,218.5426177978516,274.1890869140625,357.71044921875,475.0553588867188,574.9678955078125,669.7675170898438,729.3802490234375,754.5151977539062,768.7467041015625,775.8935546875,785.4190673828125
173.89134216308594,158.60870361328125,150.92642211914062,153.68853759765625,154.61761474609375,152.4230499267578,155.4088592529297,154.16929626464844,141.15481567382812,137.42843627929688,137.26007080078125,126.68748474121094,121.08838653564452,103.42481994628906,78.38372802734375,74.158935546875,103.6416473388672,108.96420288085938,68.41385650634766,57.446998596191406,54.68991088867188,51.86172103881836,64.5143814086914,63.00934982299805,54.65391540527344,46.2080307006836,37.83771133422852,36.04237747192383,32.072296142578125,29.00909423828125,30.298641204833984,35.51313781738281,35.26150131225586,29.83896827697754,28.36574935913086,27.5983943939209,30.3404483795166,30.935096740722656,29.079700469970703,29.584606170654297,30.638397216796875,31.73065757751465,32.69271469116211,33.46299743652344,34.46990966796875,39.203948974609375,43.198272705078125,42.28305816650391,41.83382797241211,47.09563064575195,52.59766006469727,57.592063903808594,61.296913146972656,60.71582412719727,61.6478271484375,66.75118255615234,67.53675842285156,63.59291076660156,61.3388671875,59.72614288330078,60.65837860107422,58.3283805847168,56.13462066650391,55.65533828735352,54.4814567565918,57.166534423828125,56.66128921508789,53.31368637084961,54.00634765625,58.15977096557617,63.67692565917969,63.10158157348633,59.593841552734375,55.84291458129883,52.03559112548828,50.15848159790039,47.99398040771485,46.87963104248047,46.481571197509766,46.48164367675781,47.45775604248047,47.19407653808594,47.87220001220703,49.903297424316406,47.24414825439453,43.9006462097168,43.47541046142578,44.72660827636719,46.45684814453125,48.84635925292969,51.218170166015625,49.814674377441406,49.1341552734375,52.2772102355957,52.04327774047852,50.59468078613281,51.91445541381836,48.85889434814453,47.60919570922852,51.8963623046875,51.16773223876953,46.62131881713867,43.15286636352539,44.17489242553711,46.04512786865234,40.1929817199707,38.31122589111328,39.996360778808594,40.88910675048828,40.60695266723633,44.13528823852539,43.5460319519043,41.21134185791016,49.96359252929688,70.54187774658203,85.76317596435547,107.10862731933594,169.5548858642578,217.8612365722656,213.612548828125,203.48509216308597,166.50543212890625,117.35143280029295,87.20240783691406,85.21478271484375,104.96981811523438,92.08718872070312,73.60398864746094,71.06915283203125,92.38104248046876,97.6134033203125,81.11469268798828,75.1308822631836,76.41944885253906,80.52864837646484,85.03868103027344,87.55038452148438,87.73577880859375,93.2835464477539,101.11431884765624,108.741943359375,107.05743408203124,112.33723449707033,126.982177734375,126.76314544677734,139.6540985107422,170.5077362060547,190.9235992431641,205.16018676757807,235.0870056152344,259.6426086425781,302.8452453613281,371.7464294433594,487.9690246582031,629.390625,740.313232421875,764.6923217773438,721.0772094726562,685.7007446289062,735.3572998046875,781.3268432617188
169.3063201904297,171.29205322265625,166.79373168945312,173.22837829589844,175.400146484375,160.08522033691406,157.91290283203125,164.07579040527344,154.4631805419922,144.49041748046875,145.6058807373047,142.4977264404297,158.8971710205078,168.1318359375,145.19857788085938,134.25140380859375,146.9925537109375,142.78811645507812,96.92694854736328,85.46427154541016,74.38373565673828,47.76328659057617,38.53256988525391,37.44914245605469,38.4849853515625,36.88622283935547,37.74539566040039,38.18881988525391,34.59912872314453,32.59340286254883,30.683752059936523,29.07978630065918,29.429363250732425,28.30733299255371,26.88517189025879,29.759748458862305,40.1180534362793,40.20610046386719,31.93760108947754,29.213207244873047,30.92194557189941,35.11295700073242,42.82317733764648,42.55173873901367,38.303897857666016,40.72454452514648,42.63037109375,43.19467926025391,43.813358306884766,47.720977783203125,53.40349578857422,58.60387802124024,59.51137161254883,57.79140090942383,57.67708969116211,60.86388397216797,65.95130920410156,67.13536071777344,62.05400466918945,61.037235260009766,61.790321350097656,59.2904052734375,60.85121154785156,61.29413986206055,58.57627868652344,56.28401565551758,53.3582649230957,55.67285919189453,54.66761016845703,55.47063827514648,60.21739196777344,61.02524948120117,59.067752838134766,57.36139297485352,54.51570892333984,51.06044006347656,49.112674713134766,49.6528205871582,49.64585113525391,51.36990737915039,52.84740447998047,50.30891799926758,49.42143630981445,49.83267211914063,48.19390487670898,45.188133239746094,44.7099494934082,46.50670623779297,48.473854064941406,48.916259765625,49.623626708984375,50.2426986694336,50.60818862915039,54.48480987548828,55.617774963378906,54.10799407958984,52.3472900390625,50.95199203491211,54.20000076293945,58.068458557128906,57.83245849609375,51.470794677734375,46.732566833496094,52.23177337646485,59.63182830810547,53.2454719543457,48.65738677978516,57.86603927612305,59.69648361206055,59.14361572265625,59.57334518432617,49.999324798583984,45.25875854492188,53.59458541870117,53.59314727783203,55.72618103027344,70.27342987060547,117.55694580078124,192.54937744140625,248.1319580078125,270.8026733398437,212.10403442382807,128.05734252929688,91.59927368164062,98.37920379638672,114.34999084472656,102.79645538330078,91.95875549316406,84.98797607421875,123.1971435546875,131.22373962402344,101.40670776367188,92.13272094726562,89.49124908447266,92.1973876953125,101.22599029541016,106.8740234375,102.55043029785156,116.57051849365234,152.50515747070312,173.4448699951172,147.6394805908203,138.41798400878906,190.8365936279297,216.17303466796875,217.1419677734375,237.4793701171875,258.93182373046875,236.35543823242188,221.58248901367188,257.7925109863281,302.1206359863281,359.3143310546875,446.2919921875,545.2982177734375,635.0130615234375,668.902587890625,645.1561279296875,583.8860473632812,611.14697265625,644.5818481445312
193.5971527099609,200.78985595703125,194.0530242919922,201.94287109375,204.47537231445312,178.76898193359375,168.8592071533203,173.9400634765625,165.12893676757812,165.26605224609375,156.02919006347656,158.02651977539062,172.19735717773438,181.7826690673828,170.333740234375,149.82046508789062,134.45269775390625,111.65243530273438,98.26980590820312,110.41494750976562,109.14205932617188,77.605712890625,49.43061065673828,40.308326721191406,42.11856842041016,43.51387023925781,48.47099685668945,50.42792892456055,44.310882568359375,36.87017440795898,32.55809783935547,29.23526763916016,28.80886459350586,30.016956329345703,27.39052963256836,28.986940383911133,37.61815643310547,52.57952880859375,55.38921356201172,41.082122802734375,40.09217071533203,41.80684280395508,55.71810150146485,55.54228210449219,46.898704528808594,47.64440155029297,45.7903938293457,44.57499313354492,44.07014465332031,48.38623809814453,55.207801818847656,59.794212341308594,60.82963943481445,55.16318893432617,51.812286376953125,58.88414001464844,64.28955841064453,65.20675659179688,56.61625671386719,56.77513122558594,59.51502227783203,60.6799201965332,66.7838363647461,66.28036499023438,62.913330078125,58.93542098999024,55.61936569213867,57.23406600952149,57.46772384643555,59.53767395019531,60.678409576416016,59.87701416015625,59.80066680908203,59.98296737670898,57.15986633300781,54.26628112792969,51.303932189941406,53.275123596191406,54.80930709838867,55.53670501708984,54.413944244384766,52.76948928833008,53.21310806274414,50.644073486328125,47.58570861816406,45.69244003295898,46.47176361083984,49.33015441894531,50.64458465576172,51.4322509765625,51.24637985229492,51.83501815795898,53.59612655639648,57.93598937988281,60.39893341064453,59.60956954956055,56.36109924316406,56.16686630249024,63.32665252685547,75.97172546386719,78.07158660888672,63.81093978881836,58.591285705566406,65.49452209472656,73.18184661865234,68.31857299804688,77.56778717041016,103.40291595458984,101.94247436523438,103.9101333618164,86.27521514892578,55.95056915283203,53.92617416381836,71.94590759277344,77.09037780761719,80.12078857421875,77.3655014038086,79.99250030517578,106.01983642578124,141.31068420410156,185.3314666748047,173.11827087402344,112.56400299072266,85.36265563964844,87.33899688720703,116.70848083496094,156.83551025390625,149.19276428222656,112.99870300292967,137.17835998535156,179.7963104248047,200.045166015625,189.29022216796875,172.88916015625,160.96070861816406,137.697509765625,139.52084350585938,162.546875,195.88888549804688,243.94357299804688,253.2668609619141,185.43353271484372,184.20803833007807,286.0224304199219,334.3948974609375,335.595458984375,328.22589111328125,323.1838684082031,315.0926818847656,284.0570983886719,266.54901123046875,283.6605834960937,330.0587463378906,385.9855651855469,440.3334045410156,504.3392028808594,564.2701416015625,577.3389282226562,504.7035827636719,465.7242431640625,485.1700744628906
219.40576171875,219.00027465820312,204.97987365722656,212.2337951660156,222.968017578125,198.9782257080078,192.61407470703125,212.2294006347656,220.2838592529297,211.3076629638672,185.1400604248047,191.9973602294922,220.90626525878903,222.02294921875,196.62940979003903,166.914306640625,143.391845703125,121.57144927978516,100.11239624023438,96.42105102539062,99.49213409423828,89.77275848388672,59.68575286865234,45.80099868774414,47.6025619506836,54.598628997802734,63.79782104492188,55.66324615478516,46.03174591064453,40.544654846191406,32.69187545776367,29.898149490356445,28.32003593444824,29.74776077270508,30.913408279418945,31.39259910583496,32.272544860839844,39.18370819091797,43.03769302368164,38.99578094482422,39.68977355957031,43.60264205932617,48.654544830322266,46.22545623779297,46.213829040527344,50.84982299804688,49.37935256958008,43.37897491455078,40.58509826660156,45.78847503662109,49.42091751098633,48.51721954345703,50.18104934692383,52.75025939941406,54.71809005737305,61.29595947265625,61.28265380859375,58.2783432006836,53.21722030639648,57.38165664672852,59.13380432128906,58.6580696105957,61.78929901123047,63.03319549560547,67.30518341064453,65.88847351074219,60.26193618774414,59.43961715698242,62.74165344238281,64.17879486083984,64.01030731201172,62.93743133544922,60.94578170776367,58.42816162109375,59.893798828125,61.86552047729492,56.36675643920898,57.45317077636719,59.366092681884766,56.50257873535156,56.31129455566406,58.92961502075195,61.14030456542969,58.06209564208984,49.12834167480469,49.7795524597168,57.522857666015625,72.15725708007812,72.7322998046875,62.75174331665039,60.32882690429688,56.17536926269531,60.62224960327149,67.47737121582031,70.25159454345703,73.69855499267578,71.2252197265625,70.86438751220703,94.6172332763672,143.6395263671875,146.51478576660156,117.99302673339844,115.93846893310548,121.22116088867188,121.29095458984376,108.76742553710938,114.1334228515625,129.68621826171875,108.6950454711914,84.8992691040039,64.4148941040039,50.50988006591797,52.14267349243164,71.5638198852539,93.03746795654295,92.78546142578124,78.97332763671875,79.40158081054688,80.83137512207031,84.17633819580078,109.49620056152344,143.1339569091797,142.4175567626953,124.52450561523438,114.50450134277344,153.4443359375,212.5605316162109,200.5231475830078,145.75851440429688,157.26925659179688,242.7006683349609,331.1446228027344,360.0943908691406,336.9971008300781,312.1265563964844,258.7886047363281,234.7340850830078,246.9827880859375,282.85260009765625,310.3604736328125,323.1899108886719,267.2435913085937,197.48919677734372,234.3239288330078,258.7078552246094,268.4259338378906,295.4176940917969,314.1231689453125,349.6196594238281,399.5356750488281,378.6662292480469,326.4433898925781,328.5861511230469,363.6339721679688,400.8583068847656,459.238525390625,500.29443359375,488.1938171386719,427.4376831054688,369.0476379394531,371.8232421875
222.01022338867188,227.3517608642578,232.64523315429688,241.85340881347656,239.0615081787109,227.822998046875,236.7740020751953,264.6106872558594,288.488037109375,281.6727600097656,256.3296813964844,239.18081665039065,235.42599487304688,219.3780212402344,180.1490478515625,140.73141479492188,101.60968017578124,85.65699005126953,74.89054107666016,74.24776458740234,84.0480728149414,76.38999938964844,61.32062530517578,53.50471496582031,51.67498779296875,61.94237518310547,61.34908676147461,47.13267517089844,43.49997329711914,40.84431076049805,32.72561264038086,32.45984649658203,29.34534454345703,25.49907684326172,30.888940811157227,33.518489837646484,30.43985748291016,31.538684844970703,35.643409729003906,40.10831451416016,37.70234680175781,35.62104415893555,40.13306427001953,43.33606719970703,45.81113815307617,47.23011779785156,45.38950347900391,41.409698486328125,39.14716339111328,46.05320739746094,57.72119903564453,58.72508239746094,55.1794319152832,57.14075469970703,56.41465377807617,57.15135955810547,57.007755279541016,50.1533203125,51.197227478027344,61.84944534301758,65.45590209960938,64.73723602294922,68.25209045410156,68.4110107421875,71.74408721923828,69.90070343017578,64.24744415283203,65.7066650390625,70.42745208740234,72.32569885253906,68.81204223632812,66.08728790283203,62.54033279418945,60.60753631591797,66.6351089477539,70.30976867675781,60.61302947998047,60.01547622680664,66.59043884277344,61.19939041137695,59.73506927490234,64.79745483398438,64.12191009521484,54.5323600769043,47.512325286865234,49.17498016357422,58.6618766784668,79.91634368896484,92.60662841796876,84.80689239501953,97.0562973022461,100.11206817626952,80.20450592041016,84.65937042236328,94.9844207763672,116.27580261230467,129.77423095703125,133.5962677001953,165.44761657714844,236.2697906494141,253.0455474853516,232.6586761474609,241.13763427734372,235.8132781982422,222.18826293945312,200.6845703125,189.6988067626953,187.42002868652344,146.29702758789062,104.52174377441406,67.6065902709961,64.00003814697266,69.2742919921875,56.84921646118164,60.3544921875,64.79931640625,64.28523254394531,66.55924224853516,73.1296615600586,84.20503234863281,109.46334838867188,122.67644500732422,128.01947021484375,161.26585388183594,170.2955322265625,189.810302734375,218.2826995849609,212.2799530029297,192.0713653564453,198.91519165039065,278.3671264648437,367.1267700195313,449.5464172363281,474.0261535644531,447.6151428222656,385.0924377441406,357.8646545410156,350.56787109375,377.4869384765625,407.8858947753906,403.3091430664063,331.77886962890625,236.1156311035156,205.30279541015625,199.8044891357422,187.5017547607422,198.74822998046875,220.62294006347656,274.38934326171875,384.3835144042969,449.87786865234375,409.2247314453125,380.7006530761719,382.2815856933594,379.3797607421875,398.7344970703125,406.0283203125,399.5914306640625,362.0714721679688,338.8026428222656,383.2866516113281
203.76043701171875,205.2615203857422,229.55357360839844,251.22515869140625,250.8042755126953,249.0278167724609,270.2389831542969,300.9663391113281,304.3136291503906,293.3780517578125,281.4122619628906,240.87042236328125,185.06253051757807,144.29905700683594,110.03937530517578,93.69316864013672,77.89557647705078,65.75836181640625,62.42795944213867,67.71356201171875,90.8535614013672,80.32752227783203,66.2081069946289,67.65299987792969,70.2432632446289,61.6451530456543,47.332984924316406,44.01043319702149,40.221073150634766,34.00322723388672,30.072887420654297,29.32570075988769,27.189193725585938,25.348825454711918,29.94411849975586,32.84526824951172,29.5188102722168,32.43653869628906,45.05852890014648,52.73663330078125,41.524356842041016,35.864356994628906,39.3002815246582,41.65340805053711,44.00530624389648,45.12859725952149,42.70830154418945,39.41897964477539,38.05831909179688,42.69381713867188,57.06905746459961,65.10335540771484,59.07052993774414,58.67354965209961,57.04007339477539,50.142669677734375,46.68603515625,46.96287155151367,52.1149787902832,62.10669708251953,65.99141693115234,72.93561553955078,84.38646697998047,75.43302154541016,70.8087387084961,65.83000183105469,66.1530532836914,76.72689056396484,87.52804565429688,100.00218200683594,103.47239685058594,96.30477905273438,86.20928955078125,74.95228576660156,70.32460021972656,68.88072204589844,62.16947555541992,60.40997314453125,63.22356796264648,65.59803771972656,67.73046875,65.48851776123047,59.02036285400391,52.70441436767578,48.85332489013672,53.15914916992188,74.41334533691406,106.24575805664062,106.11219787597656,97.8387222290039,109.32708740234376,123.71398162841795,101.51863098144533,97.23158264160156,117.42535400390624,148.46829223632812,171.82672119140625,196.4059600830078,242.0778961181641,292.81475830078125,294.6845092773437,277.872802734375,274.8961181640625,268.9072570800781,260.5208435058594,240.689697265625,221.64163208007807,207.0262451171875,170.54855346679688,128.9275360107422,98.91802978515624,110.97135162353516,130.77516174316406,87.77983093261719,51.45777130126953,48.85511779785156,55.91261672973633,70.6716537475586,89.07185363769531,98.26404571533205,95.4990463256836,80.6978530883789,83.83246612548828,104.3845443725586,112.8851318359375,138.8095703125,204.8805389404297,242.1539764404297,244.09393310546875,262.7465515136719,317.3427734375,380.6820983886719,457.1020812988281,513.4751586914062,550.3619384765625,533.9765625,518.1744384765625,522.468994140625,535.044677734375,538.17431640625,483.3800659179688,388.0465087890625,322.53289794921875,306.7187194824219,289.49200439453125,227.93978881835935,185.9900665283203,185.58865356445312,229.9015655517578,308.4970703125,388.3825988769531,404.6298828125,378.6271667480469,353.0882263183594,330.6606750488281,315.77008056640625,317.4714050292969,337.6839294433594,318.3949890136719,335.22576904296875,432.4178161621094
163.0095977783203,180.71694946289065,194.55441284179688,209.0814666748047,216.55831909179688,221.2731170654297,248.2104034423828,276.9881896972656,258.0716552734375,237.25148010253903,233.8597717285156,200.8965301513672,153.1046905517578,113.28756713867188,80.96967315673828,71.23169708251953,74.4692611694336,70.44830322265625,64.23458862304688,55.5130500793457,63.47380828857422,62.39092254638672,54.792930603027344,59.2357177734375,68.23658752441406,61.12915802001953,51.69358444213867,47.68555450439453,42.140079498291016,35.28885269165039,29.801820755004883,28.308080673217773,26.24683380126953,25.15987777709961,26.01937866210937,28.33291244506836,29.37186050415039,32.432220458984375,42.61523818969727,53.93004989624024,46.00294494628906,39.9007682800293,40.58087921142578,43.038047790527344,46.29867935180664,45.340091705322266,42.23023223876953,37.011512756347656,36.78713607788086,42.40217590332031,49.38421630859375,52.04019165039063,53.2254753112793,54.36472702026367,54.97045135498047,50.30751037597656,46.45700073242188,51.059814453125,54.05977249145508,56.369102478027344,55.29682159423828,58.61670303344727,72.32925415039062,72.93262481689453,66.10993957519531,62.25479888916016,68.0728530883789,78.70343780517578,84.65367889404297,114.04671478271484,146.17274475097656,144.1311798095703,164.39906311035156,157.23597717285156,118.05110168457033,91.60967254638672,83.79888916015625,86.51998901367188,91.48387145996094,108.37775421142578,102.955810546875,78.92473602294922,61.14596176147461,56.09173583984375,53.00987243652344,61.5815658569336,100.41193389892578,153.83053588867188,148.38446044921875,153.53749084472656,175.78004455566406,175.4442901611328,140.70736694335938,117.419921875,152.60894775390625,186.18299865722656,190.6490478515625,231.3204803466797,285.111083984375,328.8671264648437,316.3047790527344,284.7050476074219,283.206298828125,291.3487854003906,297.4085998535156,300.2579650878906,274.6523132324219,221.7230224609375,190.96612548828125,170.35939025878906,155.18873596191406,181.89927673339844,177.7277069091797,122.2173309326172,68.85588836669922,50.93038558959961,59.78811264038086,76.37493133544922,92.15914916992188,102.56827545166016,102.02657318115234,81.98016357421875,67.45176696777344,63.89153289794922,70.64904022216797,106.85882568359376,172.42864990234375,222.69711303710935,236.89236450195312,255.6461334228516,301.55108642578125,346.16510009765625,398.3359375,459.0055847167969,533.287353515625,597.70703125,624.2169799804688,639.153564453125,634.1077880859375,591.856201171875,527.7964477539062,467.9395751953125,423.2767639160156,393.5930786132813,336.4917907714844,259.2230529785156,224.6962890625,201.15750122070312,213.8396759033203,237.49639892578125,264.2149658203125,292.81402587890625,304.1192321777344,310.57403564453125,299.6406555175781,283.0005798339844,299.7513427734375,350.8696594238281,342.6283264160156,348.2138977050781,398.9100646972656
151.72080993652344,163.05636596679688,168.71487426757812,181.36167907714844,185.9085235595703,207.7447967529297,228.09927368164065,223.68304443359372,185.62152099609372,158.92263793945312,161.82400512695312,146.1116943359375,114.7986831665039,84.80342102050781,81.15084075927734,101.27206420898438,109.41212463378906,98.94007873535156,85.1706771850586,61.02346420288086,49.55978775024414,57.26144409179688,50.71470642089844,48.89908981323242,55.41889190673828,48.11922073364258,47.03207778930664,49.8418197631836,46.202293395996094,39.300086975097656,32.035675048828125,27.732574462890625,25.811006546020508,25.28563117980957,24.711877822875977,27.60545539855957,32.571311950683594,36.16464614868164,36.68537139892578,37.134307861328125,39.6365966796875,42.66675567626953,42.90141677856445,42.00741958618164,41.282806396484375,41.304931640625,41.29475402832031,36.74606323242188,35.87094497680664,40.329010009765625,44.13011169433594,50.38672256469727,61.74248123168945,58.84160232543945,47.34035873413086,43.29913330078125,45.04975891113281,49.07490158081055,48.41555404663086,47.40171432495117,52.5248908996582,62.499786376953125,74.39861297607422,80.29664611816406,76.14265441894531,66.68350982666016,63.7280502319336,65.27275085449219,75.81256103515625,122.8067626953125,170.89735412597656,184.91717529296875,239.5608367919922,269.1544189453125,240.5847625732422,186.9278717041016,154.017333984375,141.66419982910156,159.29147338867188,186.80496215820312,166.5885772705078,119.36402130126952,83.9152603149414,91.71617126464844,81.49468231201172,69.26969146728516,88.04474639892578,145.72463989257812,185.60357666015625,210.78607177734372,252.81414794921875,284.88250732421875,235.56390380859372,155.5795440673828,183.3756866455078,268.5762023925781,282.25390625,304.6098937988281,347.1244812011719,376.9562072753906,345.8346862792969,307.6897277832031,314.3316650390625,331.5566101074219,337.9673767089844,323.94451904296875,286.7605895996094,244.08892822265625,251.54202270507807,266.885986328125,243.3694610595703,216.92605590820312,165.45550537109375,115.03846740722656,74.60214233398438,58.94575881958008,81.77252197265625,97.74713134765624,99.64693450927734,93.11418151855467,72.5217514038086,63.38359451293945,57.38261413574219,60.4503288269043,69.24175262451172,78.41175842285156,102.65953826904295,130.20655822753906,149.8028564453125,176.9262237548828,215.7939910888672,258.1756286621094,336.5997314453125,446.4892272949219,524.4957885742188,549.664794921875,567.257568359375,601.1878662109375,629.90771484375,667.4710693359375,650.9015502929688,570.7648315429688,485.9515380859375,407.4054870605469,353.7699584960937,323.82598876953125,304.0556945800781,264.5628662109375,250.5054626464844,235.26724243164065,252.44825744628903,319.2431945800781,364.0509033203125,388.9689331054688,376.5112915039063,368.8269653320313,356.0697631835937,389.7692565917969,436.261962890625,416.8436584472656,407.1280517578125
142.36404418945312,144.4569854736328,165.30418395996094,170.05751037597656,166.25453186035156,193.5605926513672,219.29966735839844,215.16275024414065,187.39768981933597,159.77633666992188,135.32154846191406,106.24378967285156,82.372802734375,82.01071166992188,108.94097137451172,134.57408142089844,133.39097595214844,109.86951446533205,76.39559936523438,53.30173873901367,43.05168151855469,47.63178634643555,45.7359733581543,39.90107727050781,45.65532302856445,44.431114196777344,39.868690490722656,43.22422409057617,45.96885299682617,46.017677307128906,38.00455093383789,29.457231521606445,25.851682662963867,24.672935485839844,25.640743255615234,30.89937210083008,35.395355224609375,38.04690170288086,34.864383697509766,37.2711181640625,38.689449310302734,41.05602645874024,43.22310256958008,36.70099639892578,35.49188995361328,36.35232925415039,35.87384033203125,35.206478118896484,39.26332473754883,43.84387969970703,41.00091552734375,40.16533279418945,48.34663009643555,57.55127334594727,49.4604606628418,40.63075256347656,41.91473388671875,42.82786560058594,45.319278717041016,50.959259033203125,55.28391647338867,61.38545608520508,69.21549987792969,81.52632141113281,74.86185455322266,65.1925048828125,73.37683868408203,89.69402313232422,105.57659149169922,147.65310668945312,225.17367553710935,283.44482421875,345.7777099609375,366.953369140625,324.5738525390625,259.8002319335937,225.53900146484372,212.63742065429688,215.7052154541016,209.0625915527344,172.27325439453125,136.87026977539062,121.92024993896484,149.13235473632812,149.5464324951172,142.36277770996094,124.80137634277344,123.9033203125,168.13279724121094,230.42486572265625,285.05792236328125,326.0883178710937,298.15899658203125,211.64862060546875,194.4996490478516,246.10247802734372,293.6756591796875,343.632568359375,385.8947448730469,418.5948181152344,380.4147644042969,325.63134765625,310.4508361816406,306.5184326171875,295.66650390625,272.99542236328125,256.0630187988281,246.23455810546875,264.71539306640625,298.49468994140625,288.934814453125,222.92337036132807,183.4309844970703,173.04403686523438,119.98453521728516,98.58519744873048,85.83848571777344,63.52085113525391,65.01213073730469,87.88200378417969,75.66915130615234,52.47333908081055,50.196044921875,57.41089630126953,68.46033477783203,91.86311340332033,130.02725219726562,146.489990234375,136.6476593017578,133.9039764404297,158.82101440429688,208.42909240722656,297.0609436035156,379.1031494140625,410.3441162109375,435.89990234375,482.784912109375,542.307373046875,594.493408203125,669.862060546875,708.552734375,662.2689819335938,558.147216796875,490.6907653808594,501.8355407714844,498.616943359375,434.8123168945313,365.8687744140625,329.12353515625,293.153076171875,278.9789123535156,325.7066955566406,386.8658142089844,447.2272338867188,486.1601257324219,498.1900634765625,471.0408020019531,431.5794372558594,468.5751953125,520.2715454101562,512.4830932617188
94.96379852294922,91.70100402832033,107.78340911865234,124.9480438232422,151.33648681640625,180.2229461669922,191.27346801757807,187.49832153320312,168.1356201171875,157.83103942871094,142.30215454101562,121.5033187866211,103.47574615478516,107.21591186523438,133.8990478515625,132.49603271484375,117.23471069335938,91.8303680419922,67.0716323852539,62.15818405151367,58.93063354492188,65.19358825683594,62.55001831054688,56.30756378173828,47.08242034912109,39.08189010620117,34.68272399902344,36.20050430297852,42.40868377685547,42.20815658569336,36.74253845214844,29.888412475585938,26.24193382263184,24.76168441772461,26.37996864318848,35.12919616699219,40.31992721557617,38.85056686401367,33.63762664794922,33.91501998901367,35.95984649658203,40.52017211914063,40.30999374389648,32.552337646484375,36.464599609375,39.5938720703125,34.47332763671875,33.18925857543945,34.268646240234375,35.46905517578125,35.57855224609375,36.712135314941406,37.87668228149414,41.51580810546875,43.951698303222656,43.02592086791992,43.2017707824707,44.269474029541016,47.40092849731445,55.07691192626953,62.29319381713867,62.09788513183594,56.72734832763672,56.33984756469727,57.12183380126953,63.12635040283203,82.34710693359375,134.77215576171875,171.47727966308594,191.8574981689453,271.20654296875,360.628173828125,429.1240539550781,434.0389099121094,390.28564453125,337.564208984375,309.7567138671875,283.2861022949219,262.5682678222656,230.6302795410156,199.57997131347656,202.5538482666016,176.11341857910156,154.53956604003906,170.14114379882812,209.49545288085935,214.61868286132807,183.59230041503903,223.11370849609372,292.3300476074219,329.83270263671875,349.88848876953125,336.7558288574219,274.12841796875,265.229736328125,290.9150695800781,331.1181640625,394.619873046875,425.8390808105469,449.3588562011719,430.8468017578125,385.1871032714844,359.18603515625,355.6021423339844,347.42120361328125,319.3213195800781,287.1048583984375,251.15414428710935,249.35667419433597,268.4480285644531,259.72802734375,239.68125915527344,257.62841796875,238.86741638183597,192.3023223876953,190.44479370117188,136.74339294433594,66.56989288330078,54.144813537597656,73.36090850830078,65.55547332763672,50.54946517944336,54.07465362548828,53.57944107055664,73.31559753417969,135.28775024414062,185.9886779785156,205.61886596679688,211.52963256835935,189.37893676757807,185.2449188232422,202.59706115722656,215.7720947265625,245.570556640625,321.9442749023437,416.0177917480469,474.0601196289063,532.6422729492188,587.6611938476562,652.316650390625,726.7928466796875,761.2411499023438,696.7509765625,636.9518432617188,642.9091186523438,614.973388671875,536.3877563476562,491.2815856933594,468.0396118164063,415.4579162597656,400.28326416015625,442.86181640625,477.9546813964844,534.6723022460938,569.7783813476562,527.6715087890625,468.3112182617188,446.4220581054688,467.9278259277344,468.7531127929688,458.1070556640625
74.11184692382812,62.49570083618164,56.84969711303711,81.08125305175781,124.64704132080078,138.901123046875,135.82398986816406,134.7097930908203,118.07839965820312,126.31512451171876,134.88279724121094,130.7976837158203,129.41644287109375,128.3518524169922,133.68832397460938,152.02261352539062,156.97567749023438,132.17347717285156,115.3151397705078,96.5453109741211,76.65638732910156,95.77572631835938,104.49815368652344,86.71251678466797,63.32242584228516,50.66246795654297,40.90960693359375,34.505802154541016,34.17587661743164,34.934959411621094,34.10930633544922,31.368688583374023,25.948326110839844,25.76029396057129,33.258174896240234,40.37057495117188,40.42247009277344,40.55924606323242,36.23347473144531,33.3024787902832,30.85573005676269,28.54952621459961,28.80704116821289,30.41143226623535,33.82157516479492,34.920257568359375,32.88411331176758,32.512874603271484,34.46430206298828,36.99689102172852,41.89791488647461,46.924617767333984,45.29305267333984,45.02043151855469,55.11949157714844,52.37396240234375,47.24444961547852,47.64524841308594,48.59675598144531,53.46817398071289,59.22178649902344,72.47689819335938,80.70953369140625,65.97427368164062,63.02583312988281,67.70873260498047,77.21541595458984,120.15123748779295,185.95333862304688,222.5608367919922,271.9014587402344,347.2974548339844,407.1343078613281,420.9273681640625,417.9956970214844,404.71673583984375,371.8132629394531,337.1578369140625,350.03472900390625,348.48944091796875,327.8310241699219,305.2403564453125,214.38742065429688,186.00819396972656,202.82473754882807,208.13543701171875,238.54917907714844,243.3489532470703,269.0842590332031,323.1992492675781,348.9627685546875,378.5650634765625,382.5133361816406,321.3133544921875,316.9131774902344,366.326416015625,423.9055786132813,441.3260803222656,410.7080078125,402.4358215332031,400.2628784179688,400.5450744628906,372.7686767578125,342.1414794921875,344.84576416015625,324.6778259277344,290.63671875,265.6492614746094,251.11459350585935,252.82101440429688,266.37713623046875,279.0187072753906,279.4335327148437,254.13357543945312,235.5782470703125,208.40081787109372,129.6040496826172,67.97254943847656,52.86356735229492,53.6468505859375,51.39554977416992,63.12516403198242,67.36463165283203,68.61754608154297,94.5947494506836,146.21348571777344,205.92794799804688,229.2535400390625,234.2215118408203,217.6235198974609,206.52618408203125,228.93167114257807,228.89419555664065,215.95074462890625,249.4152374267578,307.6607666015625,361.697509765625,415.8851318359375,457.0047912597656,537.6827392578125,635.8612670898438,739.62353515625,774.1185913085938,757.604736328125,758.4029541015625,730.8181762695312,670.5347290039062,605.344970703125,550.1815795898438,497.1834411621094,480.9992065429688,484.2694091796875,477.831298828125,513.4777221679688,576.2897338867188,550.2767333984375,448.5197143554688,391.6853637695313,369.3731384277344,376.7806396484375,387.4927978515625
46.90584182739258,44.06488037109375,41.53814697265625,60.95021438598633,88.09329986572266,96.70997619628906,105.5832977294922,114.79559326171876,106.49923706054688,110.61937713623048,121.80169677734376,126.53244018554688,125.0309600830078,129.2728271484375,145.52676391601562,176.23492431640625,195.27700805664065,170.17369079589844,118.55846405029295,81.34883880615234,71.025390625,88.11528015136719,94.85587310791016,87.1976318359375,74.45545959472656,57.50469207763672,45.50710678100586,38.677433013916016,32.55232620239258,29.085004806518555,27.439453125,25.558290481567383,23.433767318725582,24.770267486572266,29.51687812805176,32.835235595703125,36.17364883422852,39.453643798828125,31.29742813110352,27.5821475982666,28.996337890625,31.49439239501953,31.872539520263672,30.528339385986328,31.883398056030277,34.79419708251953,35.433982849121094,34.763694763183594,36.25678253173828,39.50984191894531,44.97389602661133,48.34049987792969,47.87276077270508,47.6124267578125,52.284942626953125,64.6390609741211,71.51226806640625,63.882286071777344,55.11238479614258,55.02581405639648,60.28763198852539,72.60010528564453,83.88572692871094,78.17964935302734,86.38885498046875,95.1015625,109.61213684082033,137.02146911621094,203.022705078125,268.9074401855469,311.2231750488281,353.34942626953125,379.5064392089844,397.8792724609375,415.5271301269531,404.4903564453125,377.7742919921875,377.18743896484375,422.3493957519531,430.5569763183594,400.86663818359375,330.5597229003906,222.71002197265625,249.16607666015625,304.5533447265625,286.1890563964844,280.1335144042969,268.3265991210937,278.3769836425781,304.8503112792969,326.2419738769531,378.2400512695313,427.4898681640625,395.37744140625,381.74993896484375,423.9698181152344,452.0679016113281,460.1414184570313,439.98052978515625,396.9517517089844,367.5539245605469,357.8518981933594,326.8150939941406,291.6528015136719,293.35479736328125,272.3796691894531,261.91064453125,271.4248962402344,270.1638488769531,287.7600402832031,316.2367858886719,305.9799194335937,248.5746612548828,209.83316040039065,209.9362030029297,192.0167694091797,154.62477111816406,122.99374389648438,93.35234832763672,71.03612518310547,70.11823272705078,77.51850891113281,63.56346893310547,92.92327880859376,139.0210418701172,168.02041625976562,207.43067932128903,224.6952972412109,227.5718688964844,206.38348388671875,179.75164794921875,196.34591674804688,214.2634735107422,224.9589691162109,232.87892150878903,236.10040283203125,244.7777404785156,277.6932067871094,319.7481689453125,373.7343444824219,430.7243957519531,526.281005859375,608.4734497070312,642.5409545898438,665.1730346679688,650.2948608398438,585.3685913085938,536.583984375,525.6520385742188,493.5738525390625,453.68792724609375,427.4629821777344,391.58294677734375,403.1118774414063,460.8219909667969,448.209716796875,359.097412109375,268.2943420410156,245.7730712890625,288.7724609375,343.44451904296875
35.34608459472656,33.97378921508789,40.205753326416016,61.76577377319336,80.3432388305664,94.3334503173828,100.48883056640624,103.49887084960938,103.03209686279295,106.12736511230467,110.91915893554688,109.31450653076172,111.29541015625,134.9488067626953,167.37527465820312,165.21173095703125,144.40200805664062,137.07908630371094,93.48175811767578,57.360801696777344,50.83848190307617,53.73051834106445,54.481544494628906,60.66805267333984,60.4682502746582,54.670047760009766,52.727535247802734,46.59302520751953,41.59773254394531,37.44497299194336,32.467613220214844,26.56793594360352,22.18351173400879,22.394437789916992,24.45899200439453,27.70035552978516,28.45872688293457,27.82596206665039,29.86264419555664,35.60371780395508,39.32836151123047,42.31806564331055,39.20943069458008,33.15631484985352,33.26667022705078,36.28044128417969,39.97563171386719,40.31024932861328,40.6431884765625,44.1360969543457,49.44455337524414,59.812931060791016,63.57611846923828,61.0344352722168,60.30202865600586,64.01239776611328,74.76835632324219,90.56224060058594,81.82904052734375,68.52104949951172,71.26770782470703,67.0810317993164,66.53095245361328,68.22972106933594,88.68045043945312,118.15513610839844,160.61573791503906,204.809814453125,249.39132690429688,306.8285522460937,364.5453796386719,393.0572204589844,406.95416259765625,414.2738952636719,399.5011596679688,381.1189270019531,393.89837646484375,409.50982666015625,409.78216552734375,370.6107482910156,315.7631530761719,256.03179931640625,216.1280975341797,296.9716186523437,392.0542907714844,425.9334716796875,414.7476806640625,368.9544372558594,328.7557678222656,314.5551147460937,319.4755554199219,339.001708984375,397.0387268066406,420.1170043945313,401.8163757324219,403.9710388183594,413.085693359375,441.2317199707031,455.1090393066406,423.1408081054688,389.2362365722656,347.5413513183594,295.08013916015625,265.1339111328125,257.4405822753906,254.75848388671875,258.8111572265625,267.8682861328125,299.3575439453125,348.48065185546875,356.9446105957031,313.9112243652344,247.5820159912109,184.95013427734372,143.46559143066406,127.77704620361328,125.54451751708984,127.18812561035156,119.62847900390624,107.12379455566406,100.88990783691406,75.07538604736328,71.6762924194336,117.20189666748048,158.906982421875,174.445068359375,187.30052185058597,188.60275268554688,196.67140197753903,197.14761352539065,152.0427703857422,131.87899780273438,164.83226013183594,218.7626800537109,229.4133453369141,201.7884521484375,186.6758728027344,204.77163696289065,219.0692443847656,251.59747314453125,299.2720031738281,374.8184814453125,444.63519287109375,475.953125,459.587158203125,395.9195556640625,329.939697265625,306.8257751464844,319.1217346191406,311.9446105957031,269.5140686035156,232.81173706054688,213.21142578125,233.9565887451172,261.69903564453125,245.22360229492188,214.31494140625,183.2350311279297,199.95428466796875,256.1446228027344,343.8848876953125
44.26222610473633,32.47166061401367,31.01931953430176,41.74105453491211,67.98189544677734,110.90009307861328,131.95697021484375,132.7952117919922,134.90541076660156,138.38690185546875,132.26524353027344,112.6358642578125,110.07826232910156,126.01406860351562,138.75518798828125,131.82925415039062,110.36459350585938,100.13347625732422,81.03323364257812,66.43402099609375,57.64371490478516,47.18265914916992,43.33462524414063,45.68268585205078,43.53370666503906,42.12301635742188,45.5125846862793,44.62603759765625,43.8003044128418,40.16414642333984,32.84846115112305,25.04878044128418,21.537660598754883,21.76700210571289,22.314096450805664,24.355884552001957,26.216541290283203,27.18452453613281,33.98388671875,49.093299865722656,50.18820571899414,47.02214050292969,43.59473419189453,39.056602478027344,36.49506378173828,34.10919570922852,37.110958099365234,39.8856086730957,42.40938949584961,49.08498001098633,55.23785781860352,77.82451629638672,91.91217041015624,87.04014587402344,92.1554946899414,92.51148986816406,103.04397583007812,137.6676483154297,124.18336486816406,102.52629089355467,119.50003051757812,115.63639068603516,101.1365737915039,104.4910888671875,96.7967758178711,103.36614227294922,152.01942443847656,197.63882446289065,239.15814208984372,285.06890869140625,336.99444580078125,369.1192626953125,398.6311340332031,404.1398620605469,393.0789184570313,404.7416687011719,441.2737731933594,455.8818359375,397.15521240234375,312.73028564453125,267.4101867675781,225.47702026367188,228.48101806640625,313.403076171875,407.9041137695313,461.1070251464844,465.779541015625,446.0496826171875,411.3443908691406,388.9049682617188,403.7301940917969,398.78814697265625,392.7195434570313,385.4801940917969,354.3739929199219,334.2276611328125,345.2958068847656,365.2376708984375,393.44769287109375,419.0034790039063,412.0284729003906,360.006591796875,306.9220886230469,289.85382080078125,279.4924621582031,266.3211364746094,265.9573974609375,278.72576904296875,306.6356811523437,338.80328369140625,314.3664855957031,270.0143127441406,244.53440856933597,220.82595825195312,167.83702087402344,113.28035736083984,82.41973876953125,73.53042602539062,68.41319274902344,72.199462890625,69.31462097167969,57.617431640625,70.50286102294922,95.87532043457033,120.55281066894533,132.09095764160156,134.66578674316406,134.24447631835938,158.01449584960938,188.73880004882807,148.281494140625,105.18218994140624,123.01547241210938,170.91018676757812,184.9202880859375,170.55154418945312,167.95411682128906,189.46304321289065,185.9846343994141,175.27828979492188,202.0036773681641,271.0938415527344,334.5755920410156,365.8257141113281,346.77606201171875,259.4232177734375,184.1060333251953,158.16778564453125,155.92137145996094,154.2708740234375,137.19139099121094,124.1018524169922,120.83206939697266,124.46968841552734,133.80874633789062,149.80941772460938,153.2307586669922,151.9569854736328,175.3893585205078,221.8948516845703,304.93560791015625
79.996826171875,44.14430618286133,31.651805877685547,31.572925567626957,47.912410736083984,97.90516662597656,137.06698608398438,125.74214935302734,104.96895599365234,116.8355484008789,132.01593017578125,128.21148681640625,130.92434692382812,138.17333984375,135.88674926757812,126.403076171875,105.2931671142578,84.96073150634766,86.6515121459961,93.40074157714844,76.52954864501953,56.566993713378906,49.25524139404297,43.17211151123047,41.06665802001953,38.57258605957031,36.649532318115234,34.60700988769531,34.77822494506836,37.104305267333984,32.5424919128418,24.817625045776367,21.16165351867676,20.77797508239746,21.409717559814453,23.46919631958008,25.01659393310547,27.96855354309082,33.5753288269043,44.52509307861328,55.7208366394043,54.635475158691406,43.72564697265625,46.01789855957031,44.3621826171875,38.15117645263672,35.9986457824707,38.24420928955078,44.05082321166992,48.53513717651367,50.68699645996094,62.39521408081055,71.78668975830078,78.9472885131836,104.02435302734376,123.6068878173828,152.5093231201172,186.26954650878903,176.4673309326172,171.78526306152344,197.3896331787109,198.6057281494141,179.88833618164062,182.98097229003903,180.1758575439453,150.21119689941406,138.0196533203125,152.48130798339844,176.91615295410156,208.88113403320312,243.5753631591797,280.7250366210937,338.486572265625,354.4433898925781,352.0970153808594,355.3561096191406,367.6552429199219,370.30377197265625,320.915771484375,260.58941650390625,228.87716674804688,215.4515686035156,238.7452392578125,307.2054443359375,393.7999267578125,447.8477478027344,466.6256713867188,467.600341796875,466.6278076171875,456.6239013671875,443.6343078613281,417.4690551757813,401.3660583496094,391.0389709472656,370.6972351074219,346.95770263671875,325.2673645019531,309.8583374023437,313.0972900390625,334.5753479003906,366.6622314453125,371.75042724609375,346.1349792480469,333.8551940917969,333.4580993652344,315.6289367675781,303.6756591796875,303.638671875,323.46502685546875,334.4955139160156,286.94244384765625,243.4705352783203,212.8957977294922,187.9750213623047,146.94091796875,113.01905059814452,94.0164566040039,82.77113342285156,79.52555847167969,84.09381866455078,77.5654067993164,65.55490112304688,57.86914443969727,57.05415725708008,72.25447082519531,79.05465698242188,76.96380615234375,87.29349517822266,114.15428161621094,142.9910125732422,132.58004760742188,93.29020690917967,83.72994232177734,126.36149597167967,152.61268615722656,158.6840362548828,169.206787109375,180.09249877929688,190.6641845703125,178.73780822753906,155.6797332763672,161.53956604003906,186.6676788330078,216.37612915039065,223.30450439453125,193.5037078857422,155.9222412109375,128.64805603027344,111.39400482177734,103.52767181396484,101.80423736572266,103.7897491455078,107.98532104492188,118.4080047607422,128.42735290527344,135.11978149414062,142.4011688232422,153.24627685546875,162.1521453857422,168.11485290527344,195.5272979736328
108.10016632080078,61.7701530456543,47.176212310791016,36.47396469116211,35.080570220947266,72.33479309082031,121.5346221923828,119.62738037109376,87.19882202148438,89.8139419555664,114.9017562866211,125.0762939453125,121.49127197265624,117.93814086914062,113.64356231689452,118.50405883789062,122.36163330078124,106.0827865600586,110.2106704711914,113.58807373046876,87.61767578125,59.32125473022461,51.0111198425293,50.27392959594727,48.3809928894043,44.43214416503906,41.641597747802734,37.99150085449219,31.38821792602539,28.34225845336914,28.12412452697754,24.574676513671875,21.40109634399414,20.111108779907227,20.028564453125,21.565349578857425,24.22247314453125,29.64725685119629,32.581756591796875,40.29481887817383,56.3416633605957,57.17902374267578,52.00279235839844,53.711544036865234,48.77043914794922,44.520782470703125,39.747833251953125,38.13948059082031,40.239044189453125,43.34589385986328,47.99458694458008,56.04687881469727,75.86911010742188,99.96440887451172,137.44696044921875,164.54891967773438,190.93446350097656,236.0568389892578,251.4882354736328,258.00982666015625,255.5289764404297,241.82867431640625,235.5645446777344,247.8878173828125,281.3731384277344,275.4559631347656,236.7459716796875,218.3336639404297,200.1593475341797,193.42465209960935,207.64520263671875,250.95550537109372,304.8567810058594,308.2298889160156,289.5097045898437,269.36968994140625,254.3916931152344,251.23043823242188,233.240234375,221.0523834228516,218.70103454589844,217.6739044189453,244.8763732910156,314.40576171875,387.7275085449219,431.9100646972656,458.3703002929688,473.49652099609375,491.2268981933594,486.0502624511719,445.6237182617188,408.13568115234375,397.4653625488281,389.77825927734375,372.3009338378906,347.7476806640625,332.84429931640625,321.8184509277344,300.259521484375,267.15576171875,274.5504150390625,309.4646301269531,326.9439392089844,328.49224853515625,326.7749938964844,331.7716369628906,318.1790466308594,293.11676025390625,293.8067932128906,280.4088439941406,232.87094116210935,198.52752685546875,181.08950805664065,161.46929931640625,124.9144287109375,104.83633422851562,95.78909301757812,82.8519058227539,80.0943832397461,84.1304931640625,75.167724609375,64.97129821777344,58.270469665527344,53.06998825073242,52.63505172729492,53.546966552734375,52.6904182434082,54.986366271972656,67.23005676269531,95.3890380859375,105.26374053955078,80.08221435546875,92.57283782958984,132.76443481445312,157.33900451660156,162.44271850585938,149.7034149169922,136.90377807617188,156.77745056152344,180.05426025390625,161.9656219482422,126.48143768310548,113.0037612915039,108.32776641845705,114.24005889892578,113.47757720947266,114.37496948242188,117.0465316772461,110.57330322265624,110.26768493652344,118.59564208984376,128.69607543945312,140.03477478027344,169.8076171875,199.08221435546875,200.17446899414065,218.64015197753903,251.6705017089844,253.5940399169922,207.642822265625,176.55165100097656
116.08299255371094,80.13958740234375,61.33753204345703,41.80250549316406,30.11227035522461,47.67506790161133,84.61599731445312,95.76881408691406,83.25727844238281,88.9251708984375,113.9157257080078,121.40753173828124,107.82881927490234,96.55555725097656,87.73161315917969,96.859130859375,120.61483764648438,113.03302764892578,96.61505889892578,101.83073425292967,86.88623809814453,62.60004806518555,53.31793975830078,50.369327545166016,50.2297477722168,49.1805305480957,44.00191116333008,40.356475830078125,36.36130142211914,29.639524459838867,26.79043197631836,24.74189758300781,21.43182373046875,20.019472122192383,19.55572509765625,21.206079483032227,23.77747917175293,29.894630432128903,37.75750350952149,51.10770797729492,67.92321014404297,61.66707992553711,57.8099365234375,65.51788330078125,56.22884750366211,50.77177047729492,45.94386672973633,44.25827026367188,43.51063537597656,42.82646179199219,65.28903198242188,105.82939910888672,150.66482543945312,172.8961639404297,179.33090209960938,222.7878875732422,238.101318359375,245.333984375,270.580810546875,280.19390869140625,267.67852783203125,263.3041687011719,276.3839111328125,297.8229064941406,314.1485290527344,313.2782897949219,283.7376403808594,254.38034057617188,236.89398193359372,245.87355041503903,272.103759765625,293.012939453125,324.16717529296875,323.5368347167969,292.066162109375,274.1038818359375,263.7457580566406,247.9741973876953,227.95411682128903,233.6385498046875,243.36216735839844,240.1786346435547,252.9671173095703,281.2797546386719,328.3724975585937,378.5116882324219,413.2107849121094,432.39788818359375,443.9991455078125,456.2335205078125,436.5240783691406,404.7925720214844,391.0290832519531,374.9585571289063,362.4252624511719,339.7669677734375,320.1224670410156,300.33416748046875,262.18585205078125,229.66978454589844,254.2401123046875,293.936767578125,273.02911376953125,226.64610290527344,219.76409912109372,260.2075500488281,271.4905090332031,228.9848175048828,214.766357421875,207.06578063964844,172.53305053710938,153.94332885742188,150.66891479492188,141.2283935546875,109.72835540771484,98.16641235351562,94.3126220703125,84.62749481201172,76.20542907714844,70.733642578125,62.61620330810547,53.01089477539063,54.57459259033203,58.57828521728516,66.22998046875,76.81214141845703,74.01972198486328,66.00448608398438,59.51276397705078,61.29352569580078,65.45277404785156,63.63240814208984,95.48565673828124,109.97799682617188,103.7933349609375,121.4046630859375,122.99552154541016,109.4102783203125,112.73844909667967,114.78960418701172,106.64344787597656,98.93318176269533,94.3034439086914,86.39601135253906,92.6769561767578,96.37836456298828,112.94204711914062,148.4994354248047,166.0155792236328,172.0384521484375,196.2720642089844,222.17745971679688,244.6948089599609,269.0263366699219,304.9828796386719,290.4909362792969,320.66229248046875,382.2174377441406,355.3229675292969,295.5872497558594,250.48179626464844
146.57803344726562,112.65618896484376,78.30934143066406,52.551536560058594,43.8964958190918,32.454437255859375,29.407752990722656,40.93031692504883,57.08623123168945,75.14016723632812,93.98907470703124,78.89849853515625,72.00102996826172,78.98944854736328,87.1964111328125,100.60144805908205,119.6235580444336,123.8588638305664,81.44329071044922,63.33257675170898,64.41217041015625,57.52410125732422,50.28809356689453,45.283329010009766,46.9536247253418,45.36553955078125,37.94858932495117,36.10750579833984,33.88768768310547,28.893983840942383,25.151365280151367,22.416248321533203,20.944515228271484,20.46305656433105,19.955310821533203,21.314212799072266,23.299325942993164,31.34606170654297,40.474388122558594,44.1035385131836,49.31510925292969,51.89366912841797,51.30950164794922,59.03304290771485,63.043190002441406,55.92125701904297,49.25015640258789,49.25212478637695,51.20622634887695,47.99687957763672,61.29297637939453,100.18214416503906,142.19252014160156,176.22332763671875,202.9893798828125,231.621826171875,214.5269012451172,204.54470825195312,224.28912353515625,227.6527557373047,232.8665008544922,247.8331451416016,270.8612060546875,288.9883728027344,291.3598327636719,296.41925048828125,279.8328857421875,258.1357421875,263.59307861328125,285.1343078613281,306.503662109375,284.0687255859375,273.2002868652344,297.08349609375,319.333984375,317.360595703125,297.25,282.89617919921875,276.6386108398437,276.8362121582031,278.0268859863281,273.4211730957031,282.6972045898437,309.4637145996094,349.3753662109375,383.1428833007813,398.8553466796875,371.8529357910156,346.1454467773437,381.001220703125,385.92474365234375,381.7841491699219,369.55029296875,348.8822326660156,317.2014465332031,275.4541015625,255.0114898681641,239.2391662597656,211.25222778320312,183.04049682617188,213.211181640625,258.8760070800781,253.9412841796875,205.1087188720703,162.95436096191406,159.37107849121094,166.27481079101562,154.0397491455078,156.25558471679688,162.2908477783203,149.83828735351562,143.8063507080078,140.1163787841797,129.0145263671875,111.38079833984376,104.27407836914062,91.86991119384766,77.07572937011719,74.9823226928711,74.54522705078125,63.2523193359375,58.04634094238281,81.099365234375,111.67073822021484,148.8702850341797,180.0121307373047,190.61383056640625,164.31312561035156,104.14471435546876,65.77767944335938,57.35773468017578,57.91281127929688,63.76024627685547,67.28182220458984,79.9412841796875,100.98654174804688,116.71062469482422,114.3330307006836,90.3366928100586,80.77269744873047,76.72695922851562,76.22216796875,75.03313446044922,79.831787109375,94.6778564453125,105.56922149658205,129.4878692626953,174.54165649414062,222.4373779296875,257.22088623046875,271.2171936035156,290.2652587890625,323.0912780761719,378.19482421875,414.46087646484375,372.1911315917969,369.4670104980469,436.8169860839844,440.7039184570313,407.0679321289063,351.6844177246094
147.77511596679688,112.5576629638672,79.31107330322266,56.17109298706055,48.35391616821289,40.2110710144043,34.975425720214844,31.668087005615234,32.76764678955078,51.00509643554688,74.24154663085938,61.94944763183594,39.6670150756836,60.33058547973633,107.65886688232422,130.990234375,138.32350158691406,137.87216186523438,93.77877807617188,55.39759063720703,49.04720687866211,52.43303298950195,47.96045684814453,44.39217376708984,41.942115783691406,37.309120178222656,34.926597595214844,32.91427230834961,30.73273086547852,29.66863250732422,26.576648712158203,22.092788696289062,19.73749542236328,19.62743186950684,19.352689743041992,20.80642509460449,23.364990234375,31.62740898132324,43.523536682128906,45.96430206298828,43.60861587524414,41.053321838378906,48.39638137817383,75.94187927246094,85.20372772216797,67.0716552734375,55.879539489746094,51.56613159179688,55.19285583496094,57.710968017578125,51.27357864379883,56.315277099609375,70.20516967773438,105.4536361694336,159.54466247558594,176.2969512939453,171.10467529296875,178.61610412597656,191.10690307617188,217.6436767578125,244.8429412841797,264.4398193359375,274.8692626953125,267.4911193847656,255.9580993652344,260.06842041015625,259.6937561035156,239.07325744628903,233.68153381347656,253.35037231445312,273.2808532714844,252.8715667724609,226.64105224609372,238.9959259033203,262.00653076171875,272.664306640625,305.34649658203125,336.10662841796875,348.4496154785156,345.9169311523437,336.61529541015625,333.1707458496094,339.1303100585937,362.6794738769531,391.1469421386719,398.34320068359375,366.21282958984375,292.2276306152344,248.12042236328125,295.9530639648437,343.1204833984375,346.50836181640625,310.5596008300781,259.1290283203125,212.10302734375,166.32933044433594,154.8746795654297,179.60855102539062,169.30018615722656,143.74447631835938,166.46141052246094,207.40814208984372,200.9753570556641,174.64242553710938,154.67735290527344,129.0355682373047,114.7635498046875,104.78480529785156,100.20350646972656,100.08018493652344,96.04459381103516,97.117431640625,103.40415954589844,100.97330474853516,98.59797668457033,91.12338256835938,77.54973602294922,66.13046264648438,64.5783920288086,63.319217681884766,59.43143081665039,87.2365951538086,163.31307983398438,244.54916381835935,321.24237060546875,356.8920593261719,346.5445251464844,277.9501647949219,186.4916229248047,134.69969177246094,100.41706848144533,78.35845947265625,63.24223327636719,59.14994812011719,68.1287612915039,82.62132263183594,88.66057586669922,88.01499938964844,74.13441467285156,67.6976547241211,69.26155853271484,70.57474517822266,71.46293640136719,89.33841705322266,113.3694839477539,123.16436767578124,152.49305725097656,214.3182830810547,275.0389404296875,350.3494567871094,398.3409729003906,414.5909118652344,412.09576416015625,452.1832275390625,503.23486328125,459.0662536621094,432.1646118164063,480.1627197265625,541.1981811523438,543.6748046875,502.7467346191406
97.3397979736328,71.50241088867188,51.790225982666016,41.75074768066406,38.01238250732422,39.22602462768555,41.49211883544922,40.36209487915039,32.5654296875,28.83166885375977,38.61742401123047,43.52688980102539,33.61695861816406,40.6890983581543,63.982948303222656,90.53446197509766,115.63639068603516,126.210205078125,102.74714660644533,67.29568481445312,48.32003784179688,49.70252227783203,49.41913604736328,46.2964973449707,44.05099487304688,38.37318801879883,35.012107849121094,33.83195114135742,34.51848602294922,33.04951477050781,26.15892219543457,20.65729141235352,19.503284454345703,19.793642044067383,19.614200592041016,21.49247169494629,23.72257804870605,30.895170211791992,44.86227416992188,45.14946746826172,38.42717361450195,37.62443542480469,51.960296630859375,66.91224670410156,69.9468994140625,71.18017578125,70.47457122802734,65.34339904785156,64.03724670410156,65.70427703857422,57.96433639526367,59.92535781860352,77.50792694091797,119.58546447753906,148.6868438720703,154.40347290039062,177.85533142089844,210.36520385742188,229.7177734375,251.8009796142578,267.25341796875,276.076171875,275.8191223144531,255.65516662597656,232.2317047119141,234.0654296875,244.44810485839844,230.1334228515625,222.4322052001953,232.34991455078125,235.89724731445312,223.22496032714844,200.6100311279297,198.40652465820312,211.88555908203125,226.1491241455078,263.9546813964844,308.77154541015625,346.59326171875,364.21038818359375,368.2767333984375,364.41986083984375,360.02252197265625,364.2355346679688,380.6783447265625,365.7359313964844,300.3843994140625,216.4999084472656,187.31886291503903,249.518798828125,308.486083984375,311.7533569335937,273.8387451171875,239.68087768554688,213.5360870361328,156.67225646972656,103.62227630615234,108.25595092773438,127.73265838623048,139.2704315185547,169.5768585205078,213.2275238037109,208.0553741455078,172.17947387695312,149.21722412109375,146.54052734375,136.29348754882812,111.0648956298828,96.53741455078124,88.52428436279297,77.59391784667969,72.60958862304688,72.9878158569336,73.05807495117188,72.27020263671875,69.92403411865234,69.31146240234375,70.45018005371094,72.68059539794922,81.63973236083984,80.36613464355469,123.4706573486328,241.5503692626953,336.6379699707031,412.0272521972656,441.5284118652344,400.7305908203125,326.7354736328125,247.4928741455078,195.3642425537109,156.0720672607422,118.19428253173828,77.7711410522461,74.47230529785156,69.94400787353516,62.9065055847168,64.44943237304688,63.13469314575195,62.65648651123047,63.53816223144531,65.29979705810547,71.1369857788086,81.35002136230469,107.68883514404295,160.49032592773438,200.0367126464844,232.5693817138672,315.18048095703125,386.4530029296875,453.3331604003906,526.3607177734375,554.259765625,526.6251220703125,522.6965942382812,571.2594604492188,580.9544067382812,572.2147827148438,608.2221069335938,679.0255737304688,697.6478881835938,648.680908203125
63.6160774230957,52.32585144042969,38.50459289550781,33.358341217041016,35.94267654418945,35.448951721191406,33.23088073730469,32.684329986572266,27.686769485473636,25.1343994140625,29.86744880676269,29.094877243041992,30.72625541687012,39.697566986083984,36.83785629272461,40.9111557006836,59.54541397094727,106.11479949951172,136.91873168945312,112.76436614990234,67.01272583007812,42.98654556274414,40.92057037353516,40.266845703125,40.15264892578125,40.817138671875,39.05658721923828,36.5156135559082,34.14394760131836,28.023277282714844,21.184518814086918,19.651065826416016,19.20701789855957,18.744686126708984,19.534053802490234,21.520883560180664,22.536102294921875,26.836843490600582,36.214935302734375,34.19496154785156,35.33000946044922,46.87238311767578,47.404666900634766,44.34227752685547,47.95778274536133,53.54128646850586,83.70860290527344,106.8957977294922,103.91761016845705,85.77024841308594,63.46215057373047,75.15483093261719,114.01317596435548,139.99554443359375,143.5365753173828,153.86387634277344,174.4102020263672,214.2451934814453,269.5250244140625,290.4237060546875,278.6947326660156,270.0579528808594,258.8875427246094,242.3700408935547,214.95358276367188,200.90489196777344,197.8889312744141,191.9439697265625,192.86544799804688,190.3693084716797,188.32327270507807,178.9875946044922,174.97010803222656,190.9220428466797,211.4903564453125,233.07028198242188,273.0529479980469,311.2704467773437,350.3611755371094,381.7461853027344,402.6499938964844,396.380859375,372.6378173828125,355.8501281738281,342.4405212402344,308.9366455078125,251.6139068603516,188.31362915039065,159.72366333007812,189.1788330078125,226.5913848876953,247.16061401367188,258.24639892578125,243.34716796875,193.4540252685547,143.7775115966797,102.65895080566406,77.42342376708984,87.49398040771484,108.81352996826172,133.11082458496094,189.99075317382807,256.13250732421875,284.87811279296875,271.65380859375,252.5614318847656,226.6885681152344,204.50656127929688,192.3884429931641,183.0499267578125,159.45718383789062,133.53004455566406,115.10629272460938,100.3715362548828,98.7575454711914,96.5898895263672,98.88626098632812,107.12135314941406,113.10364532470705,109.2977294921875,84.64778137207031,110.67434692382812,219.37359619140625,301.59832763671875,355.5927734375,373.4710693359375,382.7383728027344,368.971923828125,314.9901733398437,253.2303466796875,195.33572387695312,134.6350555419922,103.30865478515624,124.53081512451172,111.95506286621094,75.78144836425781,61.534950256347656,59.18489074707031,60.59396743774414,62.40760803222656,66.44062805175781,87.20899963378906,133.15032958984375,183.2197113037109,236.6566925048828,312.4546813964844,344.3802795410156,390.2766723632813,461.0257263183594,514.6129150390625,587.7522583007812,656.9435424804688,683.3796997070312,683.5106201171875,678.9999389648438,702.5188598632812,736.3299560546875,783.1577758789062,851.55419921875,851.7406616210938,804.0908203125
45.6114387512207,45.36165237426758,38.159706115722656,30.81935310363769,29.553112030029297,32.313438415527344,33.52784729003906,33.517818450927734,27.22215461730957,21.564041137695312,23.34693717956543,24.283843994140625,28.441143035888672,33.96025085449219,28.760255813598636,30.44384384155273,52.55233383178711,82.94499969482422,100.1483917236328,93.41243743896484,66.00310516357422,48.910301208496094,40.504920959472656,37.12733459472656,37.68132019042969,37.86038589477539,34.967193603515625,35.39213180541992,34.08906555175781,25.162643432617188,19.055593490600582,18.72668838500977,18.51747703552246,18.33352279663086,19.834657669067383,22.49297523498535,23.083873748779297,23.65403175354004,27.21734619140625,32.92254638671875,41.37131118774414,48.82743453979492,52.37680435180664,55.46930313110352,53.87123107910156,53.86562347412109,90.18468475341795,130.23828125,132.4414520263672,110.95024871826172,85.6833724975586,97.25900268554688,114.7393798828125,107.44654083251952,110.30528259277344,132.5001983642578,167.60032653808594,206.27560424804688,244.1755828857422,255.47776794433597,243.9331817626953,232.91860961914065,230.3083038330078,224.09130859375,184.04725646972656,154.33177185058594,153.2130126953125,160.06959533691406,159.96856689453125,159.1154327392578,179.579345703125,200.74609375,207.03126525878903,219.74484252929688,232.9409637451172,259.14031982421875,309.9506225585937,348.5668334960937,372.67474365234375,383.96240234375,379.5275573730469,354.0431823730469,305.3024597167969,259.933837890625,236.0719757080078,232.9943084716797,217.7044982910156,175.6244659423828,140.24404907226562,134.46934509277344,147.21456909179688,151.55398559570312,161.86111450195312,143.31800842285156,113.27398681640624,96.01744842529295,88.68480682373047,71.47988891601562,68.32840728759766,87.5867691040039,136.19923400878906,211.4790802001953,306.2685852050781,408.2461242675781,393.5458068847656,335.4732666015625,333.8512878417969,330.6100158691406,306.4491882324219,309.0779724121094,282.6641540527344,229.7842559814453,173.99375915527344,130.88243103027344,107.78807067871094,91.6023941040039,82.87422180175781,88.48933410644531,101.51107025146484,105.54182434082033,93.28543090820312,100.77002716064452,154.91622924804688,195.66995239257807,229.0470123291016,252.12939453125,287.6585693359375,311.8122863769531,319.7890014648437,305.8896484375,252.06871032714844,194.72897338867188,187.650146484375,223.0752868652344,201.0941467285156,144.22088623046875,100.48270416259766,72.40653228759766,74.76937866210938,76.1910171508789,73.85533142089844,86.7615737915039,134.60400390625,232.39828491210935,314.2593688964844,383.2821960449219,442.5537109375,477.73040771484375,554.8885498046875,643.125732421875,695.723388671875,765.1781616210938,832.659423828125,870.1907958984375,883.8448486328125,893.747314453125,908.9544067382812,934.2486572265624,977.4940185546876,981.5985107421876,955.0828857421876
39.12576675415039,38.08232116699219,36.07288360595703,29.553184509277344,22.972829818725582,26.943586349487305,30.741559982299805,28.585050582885746,24.35478973388672,19.85598945617676,20.09990119934082,20.609289169311523,21.90132713317871,23.521751403808597,23.641382217407227,25.86493492126465,32.9843635559082,45.07497787475586,62.03621673583984,59.55024719238281,47.995643615722656,42.29191970825195,38.82297897338867,39.42509078979492,39.213626861572266,36.63931274414063,32.93805694580078,31.24989318847656,28.824275970458984,22.19606208801269,18.22540855407715,17.90530014038086,17.810739517211914,17.817354202270508,19.988374710083008,21.80946350097656,21.956357955932617,24.072751998901367,35.5964241027832,56.17528533935547,59.70810317993164,50.6281623840332,57.76679229736328,75.14344024658203,85.97579193115234,84.85458374023438,91.6997299194336,115.65328979492188,126.75332641601562,128.73690795898438,120.08517456054688,121.20442962646484,115.0051727294922,80.52307891845703,76.03228759765625,109.85016632080078,135.68218994140625,144.4381103515625,185.5148468017578,200.07730102539065,166.65985107421875,148.66885375976562,152.47698974609375,163.98977661132812,149.9791717529297,142.33843994140625,166.2306365966797,181.8460235595703,179.97430419921875,193.0355987548828,227.4135589599609,266.7868957519531,288.9327392578125,297.4694519042969,306.72314453125,323.3353881835937,340.4381408691406,341.7019958496094,324.3970947265625,285.686767578125,249.36492919921875,225.3095550537109,183.8494415283203,148.0177764892578,150.56964111328125,177.3972625732422,201.69720458984372,185.0450439453125,139.56227111816406,106.57624816894533,96.42560577392578,94.31976318359376,95.64640808105467,94.73239135742188,85.19157409667969,72.29437255859375,75.75318145751953,71.1021957397461,65.1815185546875,87.87400817871094,144.42141723632812,227.7743377685547,320.3485107421875,428.12445068359375,452.0441589355469,427.19622802734375,437.37835693359375,434.4244995117188,398.4459838867188,355.9900817871094,284.1889038085937,210.15200805664065,155.13514709472656,128.4566192626953,104.9440689086914,84.11703491210938,71.86811828613281,70.13089752197266,69.99870300292969,74.94943237304688,79.4311752319336,78.2658920288086,83.19544982910156,90.0401840209961,106.48372650146484,134.62474060058594,175.76210021972656,223.8431396484375,260.2714538574219,241.28733825683597,218.55374145507807,217.2053985595703,222.05296325683597,235.133544921875,206.3560943603516,171.3385009765625,150.15740966796875,103.78851318359376,88.69344329833984,110.05335998535156,105.7162857055664,101.90921783447266,146.28062438964844,253.2326202392578,372.3817443847656,460.1945190429688,529.8457641601562,565.2620239257812,572.981201171875,636.3781127929688,719.0137939453125,793.1019897460938,825.396484375,867.805419921875,946.8071899414062,987.3992919921876,1001.5758056640624,1003.1616821289062,1006.1130981445312,1010.0947875976562,1012.108642578125
43.65765380859375,35.44658660888672,32.96137619018555,29.84590530395508,25.410236358642575,24.535320281982425,24.742063522338867,21.22286605834961,18.841943740844727,19.49822425842285,20.570261001586918,24.99496459960937,32.59846496582031,33.51715087890625,31.523059844970703,31.70538711547852,28.90953254699707,32.7631721496582,39.39192581176758,42.82324600219727,41.93363952636719,33.95417785644531,37.44230270385742,43.24114990234375,41.473052978515625,35.52956771850586,31.482351303100582,31.291709899902344,27.12396049499512,20.82999992370605,18.261638641357425,18.290529251098636,18.51909446716309,17.9241943359375,19.260786056518555,22.742454528808597,24.78605079650879,26.89453887939453,36.9964599609375,64.88484954833984,87.19291687011719,78.31134796142578,81.98772430419922,97.47189331054688,114.68405151367188,124.36138916015624,109.55754852294922,99.29426574707033,99.69091033935548,112.84302520751952,120.64998626708984,115.48116302490234,107.37186431884766,77.23392486572266,56.8724479675293,86.05622863769531,99.9662094116211,92.06503295898438,128.63717651367188,159.86436462402344,129.01333618164062,103.64283752441406,101.773193359375,115.58402252197266,135.28021240234375,161.44520568847656,204.00384521484372,237.5858612060547,241.88455200195312,240.03843688964844,238.4146423339844,249.1183319091797,271.57501220703125,291.0762023925781,303.7266845703125,305.9573669433594,290.9337463378906,256.7174377441406,228.8975372314453,178.49514770507812,126.36162567138672,112.48401641845705,113.1605224609375,120.70951080322266,136.963134765625,156.59942626953125,195.79653930664065,192.8749847412109,136.1571807861328,103.69929504394533,84.6224365234375,75.4546127319336,81.6319351196289,86.95303344726562,76.03170776367188,65.25065612792969,69.28083801269531,66.60107421875,64.91722869873047,91.5991668701172,137.19631958007812,196.724609375,264.7520446777344,330.3300476074219,366.16802978515625,409.3654174804688,459.90179443359375,436.9896545410156,342.2987060546875,259.3109130859375,191.85565185546875,151.78453063964844,131.67066955566406,134.86175537109375,103.52879333496094,77.40684509277344,73.45661926269531,71.93119812011719,72.11346435546875,79.92621612548828,85.430908203125,86.88081359863281,92.37443542480467,85.26546478271484,75.37654113769531,79.96595001220703,100.51324462890624,134.9220428466797,166.34619140625,152.951904296875,156.05032348632812,155.17164611816406,139.5846405029297,141.24649047851562,136.66470336914062,136.1294708251953,140.8169403076172,125.27780151367188,84.97431945800781,75.30753326416016,86.5439453125,110.55377197265624,147.97979736328125,221.1361846923828,327.9652404785156,435.80377197265625,515.2176513671875,570.5225219726562,567.3363037109375,566.77392578125,610.6792602539062,652.8450927734375,686.8558349609375,749.4913940429688,801.2977905273438,824.854736328125,868.8839111328125,928.2578735351562,975.7694091796876,994.5089721679688,954.6156005859376
